-0.07226460 0.09180123 -0.78600001 21 37 10
0.32146117 0.08478041 -0.63400000 50 89 44
0.21545981 -0.04589527 -0.66750002 67 105 54
0.22064443 -0.02700088 -0.65200001 162 192 138
0.13549769 0.12058653 -0.61250001 57 95 54
0.07254986 -0.19053033 -0.77499998 85 121 31
0.06467829 -0.07820809 -0.72100002 69 104 62
-0.13203345 -0.01563695 -0.69400001 54 91 40
0.10119223 0.02496027 -0.64550000 66 104 57
-0.26330236 0.21544515 -0.70800000 72 101 53
0.27587608 0.04971763 -0.60900003 96 164 173
-0.26948738 0.03796657 -0.67500001 55 88 57
-0.05308411 0.18790577 -0.63099998 49 82 29
0.09171665 0.11245782 -0.62949997 49 89 27
-0.20921770 0.14084284 -0.64499998 88 131 86
0.32537377 0.14011981 -0.63599998 72 110 61
-0.25842690 -0.12080499 -0.71749997 68 106 55
-0.08460689 -0.05070407 -0.75900000 87 106 60
0.10563994 0.07241432 -0.62699997 90 116 89
0.33211905 -0.19869648 -0.69900000 111 149 48
0.05276142 -0.01743439 -0.73150003 24 54 4
0.28844345 0.01681754 -0.63950002 125 155 117
-0.10775519 0.21042784 -0.64850003 77 117 83
-0.06192235 0.12683408 -0.65950000 35 67 28
0.03439553 -0.02032808 -0.71600002 57 89 42
0.11059284 0.10148108 -0.62500000 76 115 70
0.36057857 -0.05590917 -0.65249997 66 104 63
0.06316290 0.62338465 -1.49749994 35 46 48
0.17099048 -0.11901932 -0.71799999 147 184 104
0.05132023 -0.08162237 -0.71799999 89 126 82
-0.27897307 0.08057213 -0.64999998 164 204 134
-0.09948055 0.02073124 -0.65799999 67 101 51
0.29184344 0.27349001 -0.79650003 78 108 58
-0.24463224 -0.04762312 -0.70599997 38 73 15
0.23778127 0.02764850 -0.65950000 44 74 40
-0.02036612 -0.12186705 -0.74100000 107 138 78
0.31476212 0.19102465 -0.64999998 57 94 42
0.25202751 0.18046005 -0.69400001 76 105 49
0.27004370 0.02835461 -0.66600001 54 84 56
-0.15678379 0.16963311 -0.65399998 60 97 45
-0.04776622 -0.10874989 -0.74699998 63 98 42
-0.12409472 0.09832073 -0.67299998 65 96 64
-0.24047418 -0.08341241 -0.69400001 212 232 179
0.32123682 0.16335224 -0.64600003 89 125 81
0.19063717 0.04085505 -0.65100002 71 110 66
-0.08960003 0.02929841 -0.64850003 103 140 106
0.13251567 0.06130067 -0.63450003 63 106 52
0.30352223 -0.03930903 -0.64499998 75 114 70
0.01335126 0.15694673 -0.62550002 46 79 36
0.17730938 0.06839857 -0.65499997 49 83 46
0.26902676 -0.12934834 -0.70300001 125 155 117
-0.17057608 0.29040289 -0.70200002 28 64 3
0.31829274 -0.05535222 -0.64600003 54 93 48
0.16145562 0.04179876 -0.63950002 26 63 12
0.14299121 0.06444528 -0.63700002 80 122 72
0.25575984 0.30494186 -0.80699998 73 108 40
0.10142134 0.17655917 -0.63900000 47 81 31
0.31264615 -0.07177617 -0.64999998 130 169 102
-0.20920525 0.04936976 -0.65149999 69 106 65
0.11677210 0.06977703 -0.64800000 74 99 57
0.11698008 -0.05745319 -0.69700003 139 175 114
-0.02237854 0.07817604 -0.63400000 54 91 48
0.30235335 0.26537785 -0.79549998 75 108 53
0.34742951 0.17371477 -0.64700001 76 113 69
0.31029135 0.18707193 -0.64950001 57 94 40
-0.23689547 0.02667673 -0.92299998 4 7 0
-0.22323303 0.10805706 -0.66549999 43 75 36
-0.01061609 0.15161398 -0.62199998 30 65 11
0.03663838 0.02835596 -0.65600002 94 133 86
0.34581661 0.04002348 -0.61849999 86 129 75
-0.21885459 0.27316877 -0.69999999 64 97 52
-0.12358842 0.31119141 -0.70249999 60 93 22
-0.09720473 0.09298391 -0.66000003 84 121 90
0.05779039 0.12956390 -0.63499999 64 102 55
0.23609933 0.17798978 -0.68449998 65 100 34
0.23855418 0.24844763 -0.77499998 59 93 32
0.18441363 0.00144890 -0.65600002 81 116 74
0.20780846 0.00183739 -0.64249998 191 226 146
-0.07053939 -0.06263541 -0.73100001 134 169 105
-0.08319703 0.10620426 -0.73350000 14 37 9
0.02032763 0.06599883 -0.63999999 66 103 51
-0.12156527 -0.01826865 -0.69099998 69 109 56
0.28307658 0.00786732 -0.65700001 48 79 35
-0.08568932 0.12164725 -0.66399997 42 75 30
0.19061403 -0.05788635 -0.68599999 108 146 73
-0.10010590 0.01315859 -0.66500002 164 190 127
-0.21828690 0.14912583 -0.64450002 79 119 82
-0.28587574 0.03645813 -0.68800002 73 100 67
0.18922833 0.23580004 -0.71100003 43 73 11
0.06271926 -0.17772993 -0.77200001 46 74 26
-0.25827673 -0.05191795 -0.71450001 84 123 60
0.32553172 -0.02011134 -0.63550001 71 110 63
0.06619662 0.19565038 -0.64850003 48 79 38
-0.26042029 -0.05420591 -0.71399999 57 95 36
-0.22401984 -0.08921529 -0.68650001 143 181 82
-0.00709323 0.65808123 -1.50999999 41 53 53
-0.08623365 0.02191606 -0.65499997 121 155 139
0.24681294 -0.04170099 -0.66299999 79 118 63
0.05422721 -0.12562923 -0.73199999 100 134 60
-0.11144437 0.02085824 -0.67600000 56 86 32
0.30197847 0.14302905 -0.64349997 65 102 48
-0.11714817 0.04320404 -0.66100001 63 95 54
0.04912360 -0.15317039 -0.72700000 170 200 126
0.19811870 -0.00697408 -0.64499998 182 225 135
0.14909938 0.05538605 -0.63300002 73 114 72
-0.06212337 0.28813145 -0.75599998 57 95 38
0.28607082 -0.09179777 -0.65700001 86 117 58
-0.16002330 -0.01240220 -0.69000000 69 105 59
-0.11275434 0.20168459 -0.65300000 78 118 81
0.27619302 -0.02436114 -0.66100001 7 9 6
0.01838295 -0.15432902 -0.72799999 159 191 115
-0.03451848 0.28396332 -0.76599997 52 76 26
0.03805199 -0.05681610 -0.70599997 176 201 198
0.18041727 0.00743957 -0.65700001 71 103 66
0.32960105 0.16876517 -0.64099997 86 122 78
-0.19171242 -0.01921003 -0.69250000 47 81 31
0.26536044 -0.05169930 -0.66949999 42 77 19
0.26749712 -0.16735417 -0.70499998 97 137 49
0.19557050 -0.17535864 -0.71899998 125 160 78
0.06840964 0.01114051 -0.70150000 180 230 115
-0.04971159 -0.10874989 -0.74699998 62 100 43
-0.25759736 0.07266569 -0.63999999 181 222 146
0.30479735 -0.01271367 -0.63800001 73 112 65
0.15033858 -0.17734215 -0.74299997 137 172 78
-0.25927308 0.15739027 -0.65799999 66 107 67
-0.05367097 0.16862300 -0.62349999 41 75 25
0.03030423 0.05470572 -0.63950002 64 104 44
0.28347886 0.18297830 -0.65300000 79 117 68
-0.21010041 0.07017380 -0.67199999 40 74 24
-0.16883618 -0.04721124 -0.72799999 31 59 18
-0.17760710 0.13875794 -0.65700001 52 87 33
-0.20322213 0.12035196 -0.64999998 84 127 84
0.28464073 -0.14895004 -0.69199997 115 157 59
0.01469794 0.08551864 -0.64899999 116 134 84
0.21184900 0.06319082 -0.66299999 50 83 40
0.20117283 -0.18930505 -0.72399998 187 207 182
-0.07227113 0.00999083 -0.65600002 54 88 51
-0.12462423 0.29660586 -0.69300002 56 92 20
0.31762612 0.11237434 -0.64550000 58 96 57
0.07005850 0.21446919 -0.65700001 43 76 33
0.04539920 0.11451225 -0.64099997 53 86 55
0.30316901 -0.06579176 -0.68000001 35 62 31
0.28596777 0.02171530 -0.64899999 85 113 88
0.18954748 -0.03844605 -0.65899998 42 79 35
0.26512241 -0.06613287 -0.67000002 44 81 27
-0.04438518 0.00403900 -0.66049999 64 101 60
0.33772886 0.07216884 -0.63200003 31 51 23
-0.25497913 -0.13519193 -0.71700001 169 200 120
-0.00392317 -0.15024188 -0.73350000 152 173 132
-0.06153960 0.03024766 -0.66000003 56 94 53
0.08497923 0.19448783 -0.64050001 64 97 52
0.31858432 0.17163076 -0.65350002 79 110 78
0.33340964 -0.02689958 -0.63950002 73 113 63
-0.16318779 0.04597178 -0.65750003 73 113 63
-0.27595755 0.08752212 -0.64200002 56 91 51
-0.24010657 0.09247863 -0.64450002 63 100 57
-0.10491708 0.06664187 -0.65450001 59 94 52
0.02554798 0.14339314 -0.62500000 73 112 67
0.11425868 0.18963169 -0.64099997 45 78 33
-0.16044000 -0.03861588 -0.71799999 40 70 32
-0.23296680 -0.02683227 -0.68000001 197 223 152
-0.08246076 -0.04643951 -0.76200002 40 65 25
0.11397994 -0.03153903 -0.67650002 79 115 67
-0.12564313 0.08284067 -0.67900002 0 1 0
-0.27553958 0.08835808 -0.64200002 52 84 45
-0.25662202 0.25405556 -0.67699999 63 100 46
0.22468354 -0.06665526 -0.66649997 135 178 88
0.10632515 0.02446398 -0.64349997 75 110 68
0.03113241 -0.02172656 -0.71600002 132 171 127
-0.02213702 0.27706480 -0.76899999 45 71 6
0.30881789 0.03048827 -0.61299998 128 173 178
-0.21830545 0.08567733 -0.68400002 27 56 10
0.18054323 -0.08669329 -0.70599997 180 225 120
-0.12084131 -0.05135331 -0.73299998 60 90 26
-0.25502047 -0.09750590 -0.71450001 168 204 116
-0.15988880 0.09596126 -0.67799997 65 99 66
-0.27448967 0.08661865 -0.64150000 64 99 59
-0.27513149 0.08723982 -0.64300001 62 94 55
-0.05214060 0.33074912 -0.78350002 54 83 17
0.13873830 0.18731019 -0.62900001 67 104 60
0.14773901 0.12008964 -0.61199999 65 106 66
-0.02437527 0.04353084 -0.66600001 44 77 30
0.30756789 -0.06415875 -0.64999998 62 98 60
0.21993405 -0.13211669 -0.71300000 139 181 79
0.32260263 -0.00972918 -0.63300002 67 106 59
0.31973922 -0.01514635 -0.63550001 64 103 56
0.05811670 -0.13281757 -0.72700000 208 234 169
0.20252220 -0.05645307 -0.67949998 83 119 73
0.24681827 -0.00788058 -0.65050000 55 87 46
0.27043331 -0.12084274 -0.72899997 138 163 159
-0.27408093 0.08591706 -0.64249998 44 79 39
0.34418854 -0.07557295 -0.66100001 10 37 6
-0.24543896 -0.13359772 -0.71100003 187 214 143
0.32263547 0.12221844 -0.63550001 45 81 33
0.11947648 0.57490861 -1.53199995 8 18 20
0.35939538 0.02071151 -0.61900002 80 119 64
-0.03499788 0.16618739 -0.62349999 69 108 53
-0.09312057 -0.08941572 -0.74800003 153 186 105
-0.06352714 -0.11801028 -0.73799998 124 160 88
0.25417522 0.29417595 -0.80199999 61 94 25
-0.24662632 0.04317230 -0.65399998 60 92 51
0.11052628 -0.07491115 -0.77950001 72 105 52
-0.07947127 0.17120281 -0.62849998 92 130 83
0.15237051 0.11429936 -0.61299998 60 97 56
-0.20950255 -0.02063417 -0.68000001 167 202 138
-0.04776021 -0.07034633 -0.73199999 82 118 70
-0.01738787 0.08666440 -0.61799997 72 115 62
0.13810000 0.11062644 -0.61699998 48 84 48
0.17597950 -0.03110494 -0.65799999 72 108 62
-0.08672422 0.23678949 -0.66200000 77 115 78
0.19083463 0.05122525 -0.65899998 53 86 41
0.24843155 0.29313165 -0.80199999 67 102 36
0.33942279 0.08275813 -0.63749999 13 20 2
0.15932882 0.08008729 -0.64950001 57 92 50
0.10763156 0.11980458 -0.63150001 0 18 0
0.05546686 -0.00836269 -0.72950000 52 80 39
0.01458463 0.17704284 -0.62599999 72 111 67
0.01657752 0.09724976 -0.63999999 56 92 54
-0.10480273 -0.05458257 -0.74449998 58 92 41
-0.27638739 0.09142613 -0.64300001 53 85 48
-0.21526352 0.14053176 -0.64550000 78 121 78
-0.27638739 0.09226340 -0.64300001 47 79 42
0.28437319 -0.14429557 -0.68699998 106 142 68
0.27708939 0.16512363 -0.64800000 57 94 40
0.28189379 -0.09908371 -0.69300002 131 179 167
-0.27862382 -0.09265914 -0.71300000 105 136 66
-0.20258023 0.06164299 -0.87349999 0 2 1
0.34577507 0.14898466 -0.63849998 77 115 68
0.13215406 0.14842667 -0.61549997 85 120 87
0.16774976 0.18919933 -0.65100002 46 81 41
-0.06713559 -0.09423756 -0.75150001 69 104 62
-0.00968671 -0.13733688 -0.73600000 115 145 83
-0.17344655 0.09033184 -0.66900003 68 99 68
-0.18786408 -0.04357245 -0.69999999 52 85 40
-0.27597865 0.09114904 -0.64399999 50 82 45
0.37362671 0.17962565 -0.95999998 86 114 37
0.26901302 -0.06623158 -0.67100000 43 81 24
-0.00236998 -0.02345257 -0.69800001 59 93 43
0.25128374 0.01626231 -0.66799998 73 103 69
0.20828076 -0.03392233 -0.65450001 104 140 102
-0.23735285 0.17854764 -0.66500002 77 114 71
-0.27555937 0.09072976 -0.64399999 53 85 46
-0.06405120 0.26027644 -0.73299998 34 60 13
0.35891384 -0.00356417 -0.63599998 72 111 64
-0.27513149 0.09184477 -0.64300001 41 73 34
0.32731929 -0.21325590 -0.69749999 152 189 96
0.09389961 -0.03928616 -0.68099999 87 125 78
0.25662816 0.14515868 -0.65499997 48 84 40
0.31137660 0.19102465 -0.64999998 74 111 59
0.27038899 0.01149550 -0.66900003 54 84 50
0.00480308 0.09145435 -0.62599999 67 106 62
0.26436669 -0.13092867 -0.69199997 102 147 54
0.29108989 0.01511659 -0.63800001 52 85 42
-0.20644659 0.10072471 -0.67150003 60 94 57
0.22009909 0.15125294 -0.68049997 40 75 9
0.24543649 0.26952994 -0.79400003 58 90 27
-0.20821629 0.13905522 -0.64450002 90 133 88
0.21354759 0.18297938 -0.68650001 61 96 42
0.12875640 -0.00407207 -0.65100002 121 166 85
0.27690011 -0.05653623 -0.67000002 61 98 44
-0.09093259 0.08124454 -0.65200001 88 127 96
0.22361682 -0.06772575 -0.66850001 138 179 101
-0.10223659 -0.08346007 -0.74699998 106 144 71
0.13016826 0.09161081 -0.66250002 19 40 9
0.23515823 0.25653154 -0.78899997 61 94 37
0.30638492 0.11398721 -0.64749998 53 92 48
-0.19111598 0.04247643 -0.84299999 42 41 36
0.33428910 0.09943812 -0.63800001 73 96 70
-0.03922968 0.15273748 -0.61350000 50 87 35
0.09813567 0.18323982 -0.64200002 44 77 32
-0.22378705 0.30310962 -0.69550002 93 132 79
0.11692043 -0.04582740 -0.68599999 83 121 74
-0.27388224 0.09031048 -0.64399999 52 82 44
-0.00628513 -0.11585978 -0.73049998 148 186 109
0.27628464 -0.10432324 -0.70400000 120 149 147
-0.26716226 0.05568235 -0.64600003 64 103 56
-0.00977049 0.30426985 -0.78100002 40 72 25
-0.19477338 -0.04565466 -0.69700003 110 149 84
-0.25592938 0.26306507 -0.67750001 41 79 22
0.31243983 0.06282359 -0.61699998 126 168 166
0.29917175 0.03593925 -0.60399997 109 157 167
0.14695153 -0.02619484 -0.68650001 136 174 117
-0.23374096 0.11954041 -0.65249997 35 68 23
-0.25540665 0.15097690 -0.65249997 52 93 49
0.31386358 0.00592207 -0.63200003 70 109 65
-0.02653690 0.12345439 -0.62500000 56 93 42
0.29623315 -0.08231088 -0.65300000 133 175 93
-0.07105854 0.14915270 -0.67699999 38 66 25
-0.23161805 0.27773350 -0.68650001 61 99 52
0.33678365 0.06383826 -0.63099998 27 47 19
-0.20377098 0.04116893 -0.85000002 0 5 1
0.05642530 0.10458767 -0.62900001 64 101 57
-0.10862668 -0.01322356 -0.68599999 92 129 77
0.25269943 -0.06226920 -0.66600001 39 78 23
-0.04212582 0.30711976 -0.78700000 38 67 9
0.17091271 0.09185304 -0.65499997 52 87 47
0.10452144 -0.03646458 -0.67799997 81 119 62
-0.28930125 -0.13707747 -0.72700000 116 147 77
0.07322748 0.18324900 -0.64349997 43 78 36
-0.02727971 0.06176524 -0.65249997 92 126 89
-0.20797993 0.11847665 -0.64899999 87 130 84
0.09351176 -0.03234803 -0.67500001 115 153 96
-0.06411859 0.21668090 -0.64700001 58 97 52
0.06250974 0.04857409 -0.64099997 66 107 39
-0.25222918 0.03033932 -0.66200000 50 87 46
0.06056743 0.14717688 -0.64700001 52 87 55
-0.15685050 0.10482634 -0.68400002 68 102 65
-0.21901652 -0.00592247 -0.66850001 201 235 159
0.26574266 -0.16940852 -0.70400000 106 146 58
-0.18134995 -0.05683540 -0.71200001 74 113 66
-0.19071804 0.02154553 -0.67000002 37 74 23
-0.19792114 0.26075950 -0.69849998 78 115 71
0.17039070 -0.04462493 -0.66799998 142 178 114
-0.10188621 0.00836451 -0.66250002 125 168 88
0.14428224 -0.01787034 -0.69300002 7 8 3
-0.13250391 0.01410885 -0.66900003 110 153 73
0.10855827 0.10432947 -0.62500000 69 111 63
0.33031547 -0.18713142 -0.69999999 141 174 93
0.05951161 0.07037324 -0.62699997 71 111 59
-0.08472331 0.18374147 -0.62800002 61 101 51
0.29260007 -0.04375511 -0.66799998 29 62 5
0.02703667 0.06568462 -0.64099997 34 73 10
-0.02370799 0.05255224 -0.65950000 54 88 51
-0.18057626 0.10583510 -0.69650000 2 4 1
-0.15500954 0.17685050 -0.65549999 60 97 43
0.34090659 0.05413083 -0.62800002 21 41 14
0.29455251 -0.01829509 -0.69199997 11 30 10
-0.25857365 0.27603307 -0.68449998 67 105 56
0.00563940 -0.15150619 -0.73500001 139 157 109
-0.14056912 0.09541572 -0.66799998 67 103 67
-0.07063854 0.10719086 -0.73699999 15 39 15
-0.23669678 0.13464811 -0.64550000 92 133 93
-0.07900952 -0.11095317 -0.73900002 76 106 56
0.14288023 -0.13466597 -0.73449999 178 217 126
0.28820956 -0.09564749 -0.65700001 156 189 172
0.21814783 0.28615475 -0.77600002 49 80 23
0.00285803 0.21415348 -0.64700001 49 86 32
-0.17640208 0.02535738 -0.66700000 82 121 76
-0.27388224 0.09408402 -0.64399999 49 81 40
-0.00841007 0.07588038 -0.63900000 60 98 57
-0.25320667 0.04490978 -0.65450001 51 86 44
-0.27590308 -0.03160395 -0.71799999 57 92 28
0.24869926 0.32728800 -0.82900000 89 121 82
0.16894861 0.18325852 -0.65399998 47 79 40
0.21659581 -0.01075349 -0.64499998 191 225 138
0.24897121 -0.04342760 -0.66299999 118 154 106
0.01370345 0.21291649 -0.64200002 75 112 58
0.10472822 0.10578760 -0.62400001 76 118 70
-0.19989359 0.24055655 -0.68500000 26 58 9
-0.12126794 0.01220025 -0.66000003 112 158 50
-0.12578163 0.25825551 -0.68699998 91 127 55
0.29394531 0.06786093 -0.73199999 16 39 11
-0.11696605 -0.04001826 -0.71799999 75 114 69
0.12640570 -0.02495082 -0.67699999 113 137 85
0.03523869 0.09563797 -0.64600003 20 51 9
-0.20950255 0.08783261 -0.68000001 22 55 10
-0.22040260 0.15892655 -0.65200001 72 112 75
0.09615874 0.00892197 -0.67199999 80 114 79
-0.13444388 -0.03700617 -0.71399999 85 125 75
0.26948452 -0.05653623 -0.67000002 42 77 21
0.18583208 -0.00195137 -0.65050000 53 86 41
-0.27683574 0.09732031 -0.64600003 38 70 29
0.11846264 0.59574318 -1.51900005 0 10 8
-0.19091457 -0.00654316 -0.68800002 46 82 34
-0.10371982 0.25833297 -0.69199997 66 102 56
0.27715352 0.09956194 -0.79900002 17 49 0
0.30230507 -0.02060583 -0.63800001 60 99 52
-0.29019952 -0.12374135 -0.72100002 87 122 56
0.08880901 -0.01919243 -0.67600000 167 196 138
-0.23625436 0.18512799 -0.67799997 54 87 42
0.23487946 0.02191606 -0.65499997 5 18 0
-0.23442493 0.17657270 -0.66900003 68 100 63
0.25269875 0.05462850 -0.68000001 49 82 51
-0.15084109 -0.01439462 -0.69950002 33 64 22
0.11639835 0.02221276 -0.63900000 72 112 60
-0.27599457 0.09647914 -0.64600003 45 77 36
0.31311446 -0.08956209 -0.64399999 79 111 44
0.12099098 0.00438445 -0.64800000 96 135 78
-0.18678445 0.11265302 -0.70800000 84 88 65
-0.10423763 0.22954619 -0.66100001 70 107 74
0.21571948 0.04350236 -0.65899998 44 79 46
0.02603785 -0.12766235 -0.73000002 119 158 79
-0.16986187 -0.00743902 -0.68800002 69 109 59
0.01412143 0.21375245 -0.64200002 58 96 39
-0.22876799 -0.07951738 -0.69550002 173 202 138
-0.07170240 0.06677997 -0.63950002 147 184 132
-0.23916419 -0.02004298 -0.67500001 182 208 145
-0.10376454 0.07642301 -0.65799999 74 108 75
-0.25708991 -0.05780308 -0.71249998 50 86 24
0.24261242 0.03737598 -0.66450000 53 82 54
0.31482252 0.18877549 -0.65100002 91 128 77
0.08104876 -0.01065292 -0.79400003 48 53 30
0.06837848 0.55693763 -1.50500000 94 95 100
-0.07245649 0.07803299 -0.64999998 120 157 114
-0.21741144 0.27520144 -0.69250000 70 103 58
0.04299397 -0.01896629 -0.73549998 47 77 17
0.10961904 -0.02194618 -0.67949998 102 135 90
-0.12264989 0.00188887 -0.66049999 178 218 132
0.04645072 -0.08919498 -0.71499997 85 122 68
-0.20486651 0.05885869 -0.65799999 44 75 34
0.13551407 0.19157748 -0.63499999 64 101 60
0.29540381 -0.01970348 -0.69400001 0 4 0
-0.06944307 -0.09990901 -0.75000000 54 86 45
-0.07474688 0.23271309 -0.65899998 68 107 63
-0.25958693 0.28467727 -0.68599999 80 118 67
0.06215879 0.02596565 -0.68300003 36 71 17
-0.23510578 -0.13155231 -0.70499998 181 209 151
-0.16985345 0.04909585 -0.65350002 65 107 67
0.12646542 -0.06450547 -0.72000003 57 97 37
-0.20049982 0.24358557 -0.68099999 31 61 11
-0.07337283 0.12895137 -0.66600001 35 66 24
-0.23893175 0.13243359 -0.64700001 55 94 47
-0.10606748 0.07954250 -0.65899998 59 93 58
-0.22908735 -0.08305184 -0.69099998 189 220 142
-0.07975336 0.17583290 -0.62750000 80 119 72
0.33798119 0.22160937 -0.67350000 78 115 38
-0.08862776 0.04296479 -0.64450002 73 110 69
0.11580533 0.09271166 -0.62900001 68 103 73
-0.07867049 0.14466490 -0.67049998 39 67 27
0.27341223 -0.11814524 -0.69900000 121 150 148
0.06074038 0.20280048 -0.65799999 78 56 32
0.30549818 0.09043083 -0.63599998 60 97 53
0.26504406 -0.13730372 -0.79699999 26 51 9
-0.13951696 0.08218358 -0.66299999 98 134 90
0.26449218 0.08794010 -0.64200002 68 104 58
-0.17672643 0.07862470 -0.65850002 69 111 75
-0.18276495 0.02344845 -0.82999998 20 20 10
-0.03583847 0.17403963 -0.62400001 60 99 42
-0.27577916 0.00802299 -0.67000002 82 121 77
0.26718116 -0.11756925 -0.66000003 172 221 215
0.02202689 -0.01607719 -0.69349998 69 107 58
0.11189221 -0.00366504 -0.65399998 79 118 63
0.01154981 -0.00340765 -0.68800002 65 102 61
-0.27269590 0.01677221 -0.67100000 61 97 61
-0.08469696 0.00319098 -0.66299999 85 125 91
0.02156081 0.04388053 -0.63950002 103 148 93
-0.22899328 0.27182353 -0.68400002 33 72 27
0.27244890 -0.11297243 -0.64600003 199 227 230
0.17555313 0.00646555 -0.69000000 27 51 15
0.14783654 0.65295380 -1.49600005 4 12 23
-0.20021884 0.25793058 -0.69700003 70 105 63
-0.12722377 0.02754124 -0.67799997 44 76 26
0.15531681 -0.18194373 -0.74599999 169 203 117
0.30011082 0.07346133 -0.63249999 44 82 35
-0.29983380 -0.12395583 -0.72500002 109 144 78
0.21773666 0.22082546 -0.71799999 15 41 6
-0.01960816 0.32770601 -0.76800001 103 137 61
0.21331361 0.20230810 -0.69300002 66 101 43
-0.15092376 0.09066940 -0.67150003 80 115 83
-0.07635808 -0.07897712 -0.74599999 92 126 66
0.21668030 -0.07135466 -0.67400002 176 219 111
-0.26673999 0.06455454 -0.63400000 137 178 100
-0.01556273 -0.13265944 -0.74199998 101 133 70
-0.27578726 0.10202566 -0.64649999 47 83 39
0.12746021 0.11965757 -0.61799997 30 69 22
-0.12260523 -0.02532464 -0.69950002 87 123 77
0.19666705 -0.09551015 -0.69000000 178 214 118
0.09285802 0.01025086 -0.73600000 78 86 62
0.25473854 0.18271925 -0.69400001 67 98 41
-0.09364029 0.16913164 -0.63300002 84 122 71
-0.12877609 0.07650811 -0.67000002 0 9 0
-0.24313612 0.18354166 -0.66900003 82 120 81
-0.26671723 -0.05886240 -0.70850003 67 106 43
-0.27579603 0.09980800 -0.64850003 56 89 46
0.07232022 -0.02457086 -0.70400000 64 98 48
0.17676798 -0.02321601 -0.65300000 106 140 79
0.05943218 -0.09638142 -0.72000003 74 111 59
0.10855827 0.08601838 -0.62500000 80 121 77
-0.17364210 0.23215985 -0.68000001 57 94 43
0.26834956 0.28891835 -0.77800000 51 86 20
-0.10854812 0.10470531 -0.66900003 59 80 37
0.31706095 0.16188215 -0.64349997 57 94 50
0.14332794 0.02759951 -0.63849998 66 106 54
0.02818068 -0.14688191 -0.72399998 146 180 94
-0.11743128 0.28969160 -0.69050002 64 99 41
0.06935833 0.67157972 -1.50500000 170 3 21
-0.27982610 0.10570270 -0.65100002 57 93 55
0.04936593 0.12050127 -0.63300002 60 95 53
0.32004717 0.02778527 -0.62400001 18 39 0
0.27052966 -0.10790648 -0.66399997 192 214 201
0.07840918 0.01822449 -0.69300002 67 107 47
0.29269898 0.02121685 -0.62199998 70 107 64
-0.16890946 0.13335469 -0.65149999 49 87 38
-0.23153590 0.19924831 -0.68099999 46 79 24
0.08145199 0.02970126 -0.63900000 151 197 124
-0.00581350 -0.07358170 -0.73100001 69 99 49
0.06522662 0.09119222 -0.62699997 64 101 60
0.31559715 0.01220895 -0.63800001 69 97 74
0.17339419 0.15076543 -0.63900000 51 86 46
0.21635476 -0.11775221 -0.72750002 158 183 144
-0.13089623 -0.01622788 -0.69999999 54 93 38
0.00743102 0.07897819 -0.68000001 3 9 0
0.28049654 0.02555963 -0.66100001 50 83 54
0.01942401 -0.08256222 -0.71399999 198 227 161
-0.20383310 0.11023189 -0.69849998 95 120 98
0.06860159 0.10115046 -0.62800002 61 98 54
0.26012981 -0.07305768 -0.66949999 60 96 48
-0.04754986 0.31422737 -0.79200000 43 72 14
0.28439128 0.14248018 -0.87400001 47 63 50
-0.17016436 0.08132027 -0.66299999 72 112 75
0.26753929 0.06614556 -0.62949997 91 124 105
0.15055980 -0.15190135 -0.73000002 142 182 83
-0.26877919 0.02322938 -0.68099999 34 60 23
0.35752264 0.00057567 -0.63499999 106 144 97
0.18165933 -0.17739318 -0.71399999 109 140 70
-0.26133746 0.17142136 -0.67100000 61 94 51
0.30572391 0.02733999 -0.61400002 66 95 90
0.27963582 0.02598998 -0.66100001 50 83 54
0.31582916 -0.03906525 -0.64099997 78 116 75
0.26321578 0.18060058 -0.66299999 68 105 54
-0.19494595 0.10812694 -0.68800002 64 100 74
0.05819543 -0.05811468 -0.69950002 170 196 193
0.10039427 -0.02966722 -0.67400002 121 160 93
-0.01213733 0.02425778 -0.68500000 26 52 13
0.23218869 -0.16786595 -0.71499997 119 161 61
0.32535523 -0.07107855 -0.64749998 58 100 54
-0.27770692 0.10570270 -0.65100002 59 96 52
0.25721574 0.01654724 -0.66200000 62 94 53
0.33358106 0.08842557 -0.63349998 0 4 0
-0.10807777 0.02354971 -0.65300000 51 88 34
0.34527951 0.18213956 -0.64850003 61 99 58
0.30629832 -0.09674437 -0.64999998 63 87 55
-0.03579832 -0.13915798 -0.75099999 93 125 58
-0.15778868 -0.02299813 -0.69800001 33 62 4
0.09642900 0.03885388 -0.63900000 113 156 74
0.05459982 -0.04478296 -0.71200001 65 96 54
-0.04706511 0.08988231 -0.64999998 45 83 34
0.09052533 0.01757207 -0.70300001 74 91 59
0.19075109 -0.12905937 -0.71149999 199 231 148
0.32143229 0.07877361 -0.86799997 44 64 39
0.10097356 0.02300062 -0.64950001 69 107 60
0.23889758 -0.01469062 -0.65200001 57 86 55
-0.00660872 0.07963498 -0.62599999 67 106 62
-0.10489009 0.07502362 -0.65700001 81 115 82
-0.28283501 0.10726769 -0.65799999 50 86 48
-0.16224006 -0.03289104 -0.70550001 34 65 24
0.34812596 0.14369296 -0.63900000 55 91 43
0.06701944 0.09754827 -0.62849998 57 94 51
-0.28857878 -0.04035268 -0.72399998 64 99 59
0.28452364 -0.04200799 -0.68199998 27 46 0
0.21953535 -0.00445447 -0.64499998 144 185 107
-0.20506309 0.22598447 -0.66700000 82 121 64
0.06327795 0.11989944 -0.63200003 48 86 35
0.16921408 0.66354758 -1.48699999 47 49 44
-0.14819022 0.06526389 -0.67100000 73 109 73
-0.02252400 0.01380614 -0.67549998 118 156 109
-0.20506309 0.22685298 -0.66700000 66 105 48
-0.23146507 0.17108986 -0.66799998 95 123 85
0.04478727 -0.03085355 -0.73350000 53 85 35
-0.09035608 0.14169897 -0.67299998 30 62 15
0.02516118 0.18423173 -0.62550002 66 104 55
0.20458469 0.20531106 -0.69400001 64 97 42
-0.26937121 0.00506223 -0.68250000 104 135 103
-0.23185560 0.10384049 -0.65799999 25 54 10
-0.03060604 0.08439073 -0.62500000 51 91 41
0.17362781 0.15458076 -0.64450002 54 89 49
0.34584796 0.02478155 -0.62000000 76 119 63
-0.01182789 -0.01696797 -0.69300002 51 83 33
0.05191009 0.57175750 -1.51049995 32 44 44
0.31477425 0.12594219 -0.63550001 47 84 32
-0.11028847 0.20831677 -0.64850003 77 117 82
-0.00438945 0.04958418 -0.66000003 48 86 47
0.19032729 0.03056505 -0.64850003 48 84 36
0.27828223 -0.12904462 -0.66600001 141 207 205
0.08819094 -0.12786278 -0.70999998 122 163 71
-0.22479713 0.08243149 -0.66500002 40 76 40
0.22208792 -0.14301635 -0.70950001 147 189 89
0.31450745 -0.06081983 -0.64600003 64 103 58
0.22522391 0.27864820 -0.79200000 91 128 76
0.20019242 -0.02349634 -0.64899999 117 156 101
0.26296404 0.13885936 -0.64749998 53 91 40
0.31836420 -0.07397231 -0.64700001 101 137 76
-0.09517750 0.22599626 -0.65200001 60 97 63
0.08198032 0.22361282 -0.66000003 49 78 30
-0.16990711 0.23560487 -0.68099999 63 99 53
0.09024508 -0.13556904 -0.71899998 138 175 98
0.00291987 0.04793790 -0.66100001 76 114 77
-0.24516137 0.11036330 -0.65350002 43 76 31
-0.14407884 -0.03908334 -0.71799999 58 93 51
-0.27983984 0.10907712 -0.65600002 59 94 61
0.25737515 0.15267789 -0.65799999 42 81 28
0.14192382 -0.13753518 -0.73449999 134 175 69
0.28842890 -0.09315185 -0.65750003 116 153 76
0.23041236 -0.04532448 -0.66549999 45 84 27
-0.29577273 0.03355918 -0.72200000 70 104 71
0.12082669 0.13593385 -0.61699998 64 103 58
0.29301077 0.02057097 -0.62699997 75 112 69
-0.06996832 -0.11035261 -0.73500001 119 157 80
0.18204245 0.21482182 -0.68400002 64 97 40
0.14593634 0.02928524 -0.63900000 101 140 95
0.12840958 0.00520402 -0.64499998 73 113 53
0.29299518 0.29434317 -0.79400003 80 109 61
0.33821008 0.08380563 -0.63599998 13 17 3
0.27413124 -0.10414014 -0.64600003 158 214 205
0.27613255 -0.07559732 -0.66500002 123 166 77
0.08893701 0.12769757 -0.63599998 77 111 50
0.10783024 0.18683577 -0.63999999 51 88 36
-0.26309627 -0.00966460 -0.68699998 117 156 99
0.18953151 -0.03647904 -0.65450001 65 103 54
0.19140184 0.08841816 -0.65799999 54 91 50
0.29255208 0.13595934 -0.83399999 107 138 132
0.07447589 -0.04070383 -0.69000000 68 102 65
0.26053813 0.15044969 -0.65950000 66 104 53
-0.18625382 -0.03235490 -0.69400001 52 84 34
0.07501245 0.58164912 -1.50049996 139 145 145
0.29234242 0.09652472 -0.64349997 43 81 32
0.27744219 0.09408696 -0.78799999 23 52 6
0.32285744 0.00181166 -0.63349998 69 108 61
0.19799940 0.06978010 -0.66000003 60 99 54
-0.17157891 0.00331852 -0.68949997 92 130 81
-0.21549462 0.04671695 -0.64999998 63 99 61
0.35818636 0.01748746 -0.61900002 90 129 74
0.26856178 0.29196987 -0.80599999 61 94 23
0.04049211 -0.15558113 -0.72500002 145 177 104
-0.21173730 0.14882159 -0.64499998 84 125 85
0.14881843 0.15675235 -0.62150002 61 99 52
-0.25293118 0.23141654 -0.69099998 32 66 15
0.26595950 0.30030510 -0.79200000 74 107 36
0.04898293 0.00345569 -0.71799999 43 71 30
-0.11726122 0.26009312 -0.68949997 41 75 25
0.32189995 -0.02345819 -0.63650000 72 112 60
0.08046529 0.12409161 -0.63450003 33 71 12
-0.06148525 0.14174920 -0.64150000 27 58 26
-0.26274458 -0.06117877 -0.71399999 51 86 28
-0.26655385 -0.12883602 -0.71799999 67 104 50
0.34410658 0.20365907 -0.66500002 66 101 33
-0.04751044 -0.07914326 -0.74299997 65 98 55
0.16864215 0.12973261 -0.62000000 66 104 65
-0.28540078 0.11481448 -0.66700000 51 73 50
-0.22198328 -0.11342985 -0.74900001 36 64 13
-0.01375552 0.15493943 -0.61750001 51 90 33
-0.01857989 0.16217597 -0.61750001 51 92 34
-0.01369165 -0.02066654 -0.69599998 44 77 24
0.08230598 0.08214593 -0.62650001 51 89 40
-0.04358180 -0.07565513 -0.74199998 74 108 58
-0.23899129 0.19234799 -0.67699999 33 67 17
0.01788790 0.18768059 -0.62750000 68 106 57
0.16842923 -0.04293110 -0.66200000 115 151 90
0.24534777 0.18200476 -0.69300002 90 119 65
-0.09809706 0.01460964 -0.67199999 148 143 101
-0.28453228 0.11307745 -0.66700000 63 98 66
0.02164169 0.03209949 -0.71050000 35 66 22
0.23206539 0.30628255 -0.80500001 91 123 60
0.17501751 0.09626424 -0.65600002 50 87 44
-0.20673530 -0.08347251 -0.69450003 148 182 98
-0.20132574 0.15538484 -0.69300002 84 111 80
-0.00392975 0.05731099 -0.65499997 49 83 46
-0.01856484 0.16365147 -0.61699998 57 98 38
0.05331816 0.10902841 -0.63099998 57 94 50
0.33722347 -0.13438299 -0.70300001 0 23 0
0.00391498 0.01087053 -0.68449998 35 72 31
0.31981006 0.09840191 -0.63400000 62 101 56
0.23642208 0.30096391 -0.80199999 66 101 37
0.01988296 0.15299655 -0.62599999 56 94 47
-0.07104740 0.20360455 -0.63000000 65 107 61
0.07171844 0.18703562 -0.64499998 46 79 36
0.12417416 0.20530751 -0.64700001 56 91 33
0.08335698 0.03692787 -0.63450003 183 226 137
0.16629353 0.14682381 -0.63099998 57 95 56
0.26252961 0.11560030 -0.80199999 26 55 0
0.13449860 -0.05789896 -0.70800000 53 90 39
0.13338050 -0.14866041 -0.73750001 117 157 61
-0.28971243 0.11645824 -0.67400002 17 36 14
0.35891384 -0.00273602 -0.63599998 73 115 69
-0.08233561 0.19207160 -0.62849998 80 120 68
-0.28971243 0.11777469 -0.67400002 48 67 45
0.29285887 -0.20249455 -0.70749998 103 144 52
-0.08967520 0.04054127 -0.64600003 67 104 63
-0.26181486 -0.03747103 -0.71399999 163 193 195
0.23517251 0.17416707 -0.68699998 61 95 35
-0.28166616 0.15645446 -0.68000001 20 52 13
0.09480803 -0.14531006 -0.74000001 107 145 62
-0.00802819 0.65513617 -1.50100005 44 54 55
0.26817608 0.29479858 -0.80800003 62 95 24
0.34662166 0.12375109 -0.63700002 47 80 35
0.01560974 0.24183206 -0.67000002 59 85 20
-0.22296713 -0.00329868 -0.66600001 186 217 147
0.29978696 0.11077905 -0.64600003 61 100 56
0.08555850 0.61440474 -1.49699998 23 35 35
-0.03144500 0.17282905 -0.62550002 58 97 44
-0.30057043 0.19829650 -0.72450000 32 62 26
0.11764544 -0.01014417 -0.66000003 99 137 90
-0.25580263 -0.04706766 -0.71149999 79 119 59
0.30348042 -0.06527734 -0.64850003 75 107 68
0.33169153 -0.02264716 -0.63700002 69 110 66
-0.05895543 -0.06246404 -0.72899997 74 114 62
-0.10424805 -0.00949579 -0.67500001 26 59 6
0.01054644 0.66535157 -1.50199997 5 21 20
-0.22014681 0.11316814 -0.65249997 68 105 71
-0.04805877 -0.11993849 -0.74400002 99 132 85
0.03812531 0.03588544 -0.63800001 68 109 53
0.02465501 0.15023528 -0.62300003 72 114 66
0.15217648 0.17405993 -0.62699997 66 99 52
-0.23529935 0.25819555 -0.67400002 76 115 68
0.33945468 0.20975003 -0.66100001 92 129 60
0.13119408 -0.17471041 -0.75250000 134 171 76
0.29716945 0.01948518 -0.63150001 59 97 50
0.08972596 0.61234140 -1.50150001 44 55 57
-0.21424437 0.09727261 -0.68099999 40 73 30
-0.28795719 0.11865232 -0.67400002 42 62 37
-0.11001901 0.01456616 -0.67000002 94 135 41
0.08924233 0.00069897 -0.77100003 10 10 0
0.11659189 0.20909864 -0.64700001 64 99 45
0.18672395 0.01767223 -0.67199999 57 93 49
-0.14426403 0.08858959 -0.66900003 68 103 71
0.09875578 0.00232767 -0.66299999 89 126 74
0.14841434 -0.04085485 -0.68500000 119 155 91
0.29114541 0.01627296 -0.63450003 63 99 53
0.32233223 0.10500234 -0.63900000 72 110 69
0.29768398 0.00804255 -0.63700002 86 125 81
-0.18864882 -0.06222089 -0.69450003 180 218 135
-0.12068684 0.09567819 -0.67600000 73 107 74
0.29320103 -0.17607513 -0.70499998 133 170 75
0.16119458 0.10191907 -0.64850003 50 85 45
-0.22258021 0.15536110 -0.64600003 74 115 75
-0.27021661 -0.02563237 -0.70800000 31 69 8
0.00939013 0.11225884 -0.63300002 45 82 30
0.10203168 -0.05223202 -0.68800002 119 155 94
0.23527683 0.17703994 -0.68599999 61 96 32
-0.22752714 0.28188500 -0.68900001 77 115 68
0.21964860 -0.12369048 -0.72899997 125 163 86
-0.08014087 0.02912110 -0.65399998 127 164 133
-0.28579018 0.11786272 -0.67199999 46 69 43
-0.05570165 0.14644964 -0.61900002 36 73 21
-0.28579018 0.11873775 -0.67199999 44 64 37
0.08512585 -0.05040859 -0.69999999 46 80 43
0.18090628 0.18635251 -0.66350001 64 97 52
0.03476421 0.08625136 -0.64499998 66 105 60
0.22201647 0.19751084 -0.69199997 59 92 35
-0.04500429 0.14172934 -0.61600000 38 77 22
-0.24093218 0.19822428 -0.67750001 53 82 34
-0.14262713 0.05256905 -0.68199998 35 63 22
0.21550293 0.01739559 -0.64550000 74 113 68
0.08142690 -0.04327342 -0.68800002 66 101 59
-0.16918963 0.29097942 -0.71350002 26 60 0
0.25485280 -0.14161190 -0.68699998 130 172 74
-0.22161886 0.20486164 -0.68049997 20 53 0
-0.16686502 0.13105178 -0.64850003 54 92 45
-0.09600718 0.02932100 -0.64899999 77 114 73
-0.29141957 0.12306909 -0.67900002 31 58 25
-0.26878178 0.10730287 -0.65300000 74 109 76
0.12930560 0.09031682 -0.66250002 18 38 10
0.01801681 -0.07878815 -0.71350002 164 199 119
0.29008433 0.10388861 -0.64499998 22 61 8
-0.27330950 0.14023635 -0.66399997 46 82 38
0.03007207 0.14525282 -0.62599999 43 84 40
0.29552254 0.18820699 -0.65050000 53 91 32
0.28090695 0.17790577 -0.64999998 64 102 51
-0.00728586 -0.13532816 -0.73549998 143 173 109
-0.14120488 0.14254327 -0.64700001 59 99 47
0.13047896 0.66065377 -1.49800003 7 15 28
0.16066778 0.08415139 -0.65149999 55 91 47
-0.26907259 0.00373738 -0.68400002 106 136 100
-0.29139119 0.12254485 -0.68099999 32 57 27
-0.15248799 0.09707028 -0.67650002 68 102 67
0.20415938 -0.09016041 -0.68349999 175 212 117
0.29987133 -0.08885271 -0.64800000 72 103 36
0.00079368 0.01173606 -0.68300003 70 104 71
-0.25782222 -0.00910999 -0.67900002 141 176 118
0.18474269 0.18500693 -0.66799998 58 92 42
0.30941707 -0.06815879 -0.68599999 34 64 28
-0.04724810 0.08029118 -0.64099997 106 150 99
-0.29094782 0.12298822 -0.68099999 34 59 29
0.31873614 0.21490197 -0.66900003 53 88 32
0.39336935 0.23337525 -1.10500002 163 212 71
-0.06973623 0.14915270 -0.67699999 33 61 20
0.14957054 -0.15043385 -0.72750002 127 167 70
-0.24073024 -0.10464198 -0.69999999 140 168 110
0.04445714 0.07455095 -0.64550000 20 49 5
-0.08735271 0.12414752 -0.66350001 33 65 24
-0.03242530 0.07491314 -0.64499998 67 103 67
0.17760442 -0.11247202 -0.72399998 166 191 100
0.27338162 -0.07540568 -0.67100000 66 106 33
0.15251650 -0.13170710 -0.72350001 127 168 64
0.18640615 0.06233303 -0.65399998 34 68 31
0.00074371 0.20308626 -0.63999999 61 101 41
-0.20310019 0.22242835 -0.67199999 58 97 42
0.26568708 0.21566537 -0.72899997 67 97 37
0.16169171 0.07978708 -0.65050000 91 125 90
-0.00093887 0.21420594 -0.65100002 56 89 36
0.08059210 0.12263218 -0.63550001 48 86 29
0.01945121 -0.07197116 -0.71499997 176 198 151
-0.17117071 -0.05731366 -0.73600000 42 73 29
0.11473423 0.02304482 -0.63900000 78 118 66
-0.04342427 0.07724916 -0.63999999 120 160 107
0.15889083 0.10068499 -0.64600003 45 80 40
0.26990867 -0.14935623 -0.78399998 38 64 19
0.19882707 0.13515747 -0.68199998 51 83 34
-0.02879292 0.12225998 -0.62099999 62 99 48
-0.04010518 0.03322375 -0.66799998 24 44 17
0.01792505 0.04583083 -0.64349997 55 96 40
0.01175541 -0.15064064 -0.72850001 126 157 90
-0.23242071 0.25167695 -0.66949999 54 93 46
-0.15022594 0.30228212 -0.70950001 54 86 23
0.02134166 0.19715591 -0.63300002 68 106 55
-0.13264082 0.07634109 -0.66100001 69 105 69
-0.24381250 -0.08242817 -0.70099998 213 234 178
0.30141652 -0.01103484 -0.63700002 79 118 74
0.19321507 -0.07165236 -0.68099999 103 147 49
-0.29485309 0.12586093 -0.68699998 41 65 33
0.16729270 -0.00388360 -0.69300002 184 219 163
-0.11255328 -0.02644175 -0.70499998 55 94 39
0.27943063 0.19467530 -0.65950000 83 119 71
-0.08197897 -0.02334930 -0.66900003 228 252 216
-0.25451234 -0.12352166 -0.71700001 81 116 58
0.13142371 -0.13808328 -0.74000001 188 223 141
0.35226813 0.03299015 -0.61500001 87 128 70
0.19484378 0.09548972 -0.65950000 73 111 72
0.00889066 0.04764781 -0.65700001 70 111 71
0.31983158 -0.22645707 -0.69900000 166 202 112
0.17204513 -0.14249158 -0.71850002 117 157 71
-0.25195768 0.13306017 -0.64800000 104 142 101
0.27494678 -0.10954439 -0.73600000 143 168 164
-0.23680890 -0.02974879 -0.68599999 226 248 184
0.27357492 -0.15266454 -0.69250000 116 156 67
-0.18032645 0.05013786 -0.65600002 75 115 78
0.08404256 -0.01010070 -0.71799999 104 141 63
0.35158533 -0.00519174 -0.63249999 64 102 61
0.06984185 -0.08149400 -0.72100002 59 98 54
0.02889546 0.18712282 -0.62699997 46 86 34
0.13404216 -0.14309227 -0.73850000 180 219 130
-0.23051892 0.05033371 -0.65300000 64 98 65
0.19548485 0.20786910 -0.68900001 62 98 34
-0.29265678 0.12549452 -0.68500000 30 54 22
-0.07808749 0.11058933 -0.67299998 18 38 10
0.02454459 -0.15006326 -0.72799999 130 163 84
0.11954510 0.07634109 -0.66100001 10 33 4
-0.21670966 0.19689487 -0.67900002 24 58 0
0.14714801 0.00986899 -0.64800000 175 213 136
-0.22910316 0.22295657 -0.68300003 18 56 0
-0.14453962 0.26349315 -0.68900001 130 164 90
0.28198177 -0.08202993 -0.66450000 152 189 119
-0.23043719 0.19049531 -0.68300003 34 64 12
0.13317065 -0.14559484 -0.73900002 125 165 68
0.36739159 -0.00607239 -0.63849998 85 126 66
0.14779201 0.10578760 -0.62400001 55 89 56
0.10132144 0.03021156 -0.64099997 116 144 106
-0.29221079 0.12817039 -0.68500000 32 56 24
-0.27465677 0.11162990 -0.66100001 70 105 75
0.21661939 0.17372476 -0.68349999 60 93 36
-0.27243784 0.03466641 -0.68800002 58 91 62
0.27101758 -0.10809613 -0.67600000 148 175 170
-0.22499780 0.22241998 -0.68000001 34 67 12
0.17598625 0.15602283 -0.64700001 61 93 54
0.21045856 -0.10419688 -0.69400001 172 212 115
0.28153622 -0.11572716 -0.63800001 245 50 64
0.30519241 0.13934584 -0.84799999 99 133 132
0.02392033 0.15153141 -0.62500000 73 117 68
0.26678097 0.09289824 -0.64450002 52 90 43
0.29240686 0.12133258 -0.65300000 70 95 65
0.29093310 0.06171862 -0.61400002 80 124 137
0.28283045 -0.08618221 -0.66649997 40 67 34
-0.20174547 0.04950905 -0.65899998 34 66 17
0.35143077 -0.11808440 -0.71799999 44 71 26
0.17721026 0.11214638 -0.65149999 41 74 43
-0.27204892 0.01383680 -0.67699999 60 100 65
-0.17935087 0.16026564 -0.65399998 59 94 54
-0.22985749 0.14062448 -0.64399999 70 111 69
0.16286287 0.08355879 -0.65350002 65 99 62
0.03383843 0.03988232 -0.63550001 48 89 33
0.09819608 0.11933029 -0.62900001 46 87 29
-0.26759556 0.06339954 -0.63900000 103 142 79
-0.20519255 -0.09564814 -0.73600000 97 123 58
0.26677635 0.11987313 -0.65899998 71 106 66
0.26583579 0.02473629 -0.66200000 31 61 25
0.14434661 -0.02359875 -0.68900001 96 132 88
-0.00460010 0.17735377 -0.63000000 44 77 32
-0.02976426 0.14213039 -0.61600000 38 73 17
-0.06162989 0.15992515 -0.62599999 49 86 34
-0.20140755 0.13865235 -0.65649998 81 123 85
0.15875080 0.04827097 -0.63700002 69 109 59
-0.10827831 0.24979278 -0.68099999 65 97 48
0.18148369 -0.07764208 -0.69900000 117 158 66
-0.22804675 0.22190465 -0.68250000 22 57 0
0.17195645 0.01775940 -0.65899998 72 113 57
-0.22858830 0.08943070 -0.65600002 68 101 48
-0.14959201 0.12849134 -0.65050000 79 118 71
-0.05664848 0.16699411 -0.62500000 33 67 16
0.20431405 0.02287668 -0.64600003 74 114 64
0.18413801 -0.01508034 -0.65050000 64 102 43
0.29041925 -0.03434065 -0.67100000 59 93 56
-0.08404871 0.25339270 -0.69700003 50 84 49
0.36846101 -0.05517897 -0.65899998 94 128 111
-0.05411143 0.01131507 -0.65850002 64 100 64
0.02220519 -0.15786338 -0.72899997 150 182 106
0.19269691 0.05255224 -0.65950000 58 94 48
-0.22166336 0.22041000 -0.68199998 51 84 31
0.29875094 -0.04270708 -0.65200001 64 101 57
0.12583348 0.18842831 -0.63000000 59 94 62
-0.03508331 -0.04341741 -0.73600000 209 223 206
0.02741117 0.05641521 -0.63999999 40 82 16
0.07895705 -0.03287518 -0.68599999 108 144 116
-0.07077118 0.13025218 -0.66600001 36 67 25
0.05011089 0.17462502 -0.63200003 66 98 49
0.10591408 0.05399224 -0.63599998 113 154 114
-0.15439558 0.12053925 -0.69499999 37 52 29
-0.24824743 0.25890401 -0.67699999 44 82 31
-0.29349056 0.13052344 -0.68800002 31 55 23
-0.29349056 0.13097137 -0.68800002 31 55 23
0.16197319 0.16305123 -0.63499999 44 80 34
-0.21291979 0.25336859 -0.67400002 88 130 80
-0.08178718 0.14215161 -0.67100000 38 66 25
-0.29304263 0.12917964 -0.68800002 26 51 19
-0.02987118 -0.12668078 -0.74949998 72 104 41
0.10817417 -0.02755466 -0.67600000 95 132 80
0.18328536 -0.02365926 -0.65350002 57 94 40
-0.21871595 0.26110786 -0.67699999 55 93 52
0.31510249 -0.02181771 -0.63700002 59 101 51
0.26429114 0.18789725 -0.66900003 43 81 34
-0.20549513 0.12391303 -0.64649999 92 135 92
-0.04103047 0.03982675 -0.65499997 57 92 50
0.21899480 -0.12474787 -0.71600002 144 184 96
-0.17089903 0.12943777 -0.65100002 62 99 55
0.32074639 -0.17282945 -0.70300001 197 219 155
-0.03202739 0.09314974 -0.62099999 74 117 71
-0.23273402 0.14294250 -0.64499998 80 120 83
0.02786941 0.20080017 -0.63150001 71 109 60
-0.29259470 0.13231516 -0.68800002 33 58 26
0.26992747 0.14168270 -0.64499998 66 103 51
0.32460150 0.10951728 -0.64600003 59 97 56
-0.06187685 0.27718309 -0.75300002 67 96 40
-0.18231232 0.14046894 -0.65700001 43 81 30
0.27662337 -0.02436114 -0.66100001 3 3 3
-0.12898500 0.30548537 -0.70200002 64 98 24
0.30539078 0.20267965 -0.65899998 61 99 48
0.08822294 -0.09650795 -0.71399999 134 173 94
0.28124514 -0.13307147 -0.67100000 186 221 217
-0.21815553 -0.11741263 -0.69199997 188 221 142
0.18297280 0.07862470 -0.65850002 58 95 52
-0.24995619 0.20966342 -0.68900001 57 87 37
-0.20995894 0.22564566 -0.66600001 78 117 60
0.01532748 0.09641641 -0.63999999 76 114 75
-0.06642461 0.12161493 -0.74900001 15 35 10
0.28494456 -0.16582988 -0.70050001 143 186 79
-0.21373734 0.03130344 -0.86799997 81 83 70
0.25995883 -0.11927542 -0.79100001 42 69 16
0.13034739 0.10541905 -0.63400000 45 65 40
-0.18087621 0.13982594 -0.65799999 35 73 22
0.30448014 0.29234192 -0.79699999 81 115 55
0.33665928 -0.20466830 -0.69150001 144 186 78
0.20208086 0.03364976 -0.65100002 76 115 70
0.23124303 0.20305188 -0.69400001 66 100 39
0.17924595 -0.12792160 -0.71550000 201 240 151
0.27483788 0.07912620 -0.63499999 53 91 42
0.00448680 0.12829991 -0.63900000 43 78 22
-0.14488150 -0.05199286 -0.72200000 45 78 23
0.26394260 0.09822422 -0.65200001 83 116 85
-0.15393230 -0.01162044 -0.69700003 27 57 19
-0.17071477 0.30272064 -0.71600002 27 60 5
0.15446152 -0.11561874 -0.72600001 79 120 26
0.29493591 0.06928855 -0.63200003 49 84 42
0.19977450 -0.13506833 -0.70899999 157 195 110
0.30088648 0.10440868 -0.77700001 31 28 23
0.04405351 0.16821733 -0.62199998 60 100 50
0.33117610 0.19092281 -0.65399998 69 106 37
0.18523833 0.02215027 -0.66200000 43 75 38
0.16181336 0.11368632 -0.61400002 74 112 73
-0.20106827 -0.09836023 -0.74199998 115 141 80
-0.09341629 0.11120675 -0.73500001 13 36 10
-0.30260259 -0.14385884 -0.73750001 58 92 18
-0.21080691 -0.08501220 -0.69599998 135 169 93
-0.09698121 -0.03894978 -0.75150001 53 80 37
0.33195189 -0.02640040 -0.63749999 73 113 63
-0.22832370 0.20708929 -0.68199998 37 67 15
0.14822094 0.01734169 -0.64349997 141 186 93
-0.17562626 0.02778409 -0.86400002 2 2 0
0.19544746 0.00436077 -0.64450002 79 121 55
0.24334091 0.19565217 -0.69499999 65 96 37
0.16755494 0.14251362 -0.62650001 68 106 67
0.05934219 0.64569509 -1.49950004 164 2 13
-0.24279417 0.11683466 -0.65399998 47 84 32
-0.01896655 0.09013951 -0.61699998 56 98 48
-0.27189419 0.27241963 -0.68550003 11 41 3
-0.04355808 0.01264908 -0.66100001 53 85 46
0.25933090 0.17024089 -0.66299999 61 100 47
-0.15550986 -0.06716996 -0.73900002 48 82 22
0.26846027 -0.14685832 -0.80100000 37 64 21
0.32638893 -0.11371484 -0.68599999 14 35 4
0.16139825 -0.11731263 -0.71899998 89 131 33
-0.29259470 0.13455480 -0.68800002 28 51 22
-0.29259470 0.13500273 -0.68800002 17 40 11
0.05378290 0.12614036 -0.63650000 63 100 57
-0.25259578 -0.07690643 -0.70899999 69 102 13
0.07557959 0.06206788 -0.62150002 150 189 124
-0.24045993 0.22621594 -0.68750000 27 60 3
0.00204048 0.07607458 -0.65499997 64 98 65
-0.24914731 -0.13434932 -0.71499997 164 194 120
0.15282947 0.01776065 -0.64349997 139 186 90
0.27882886 0.05514239 -0.61199999 128 178 189
0.18076126 0.14400530 -0.64600003 50 84 49
-0.20020367 0.16457959 -0.67699999 52 83 41
0.04088306 -0.00934450 -0.73199999 46 71 32
0.12477547 -0.05815622 -0.69999999 30 63 16
0.12530445 0.00852366 -0.64200002 196 227 160
0.02761045 0.04894626 -0.63499999 54 94 44
-0.07710120 0.09488016 -0.79900002 0 14 0
0.26092467 -0.13659234 -0.68650001 107 153 55
-0.23477036 0.03587886 -0.65300000 67 104 63
-0.14764173 0.16818671 -0.65499997 41 79 22
-0.29504862 0.13644561 -0.68849999 33 58 28
-0.16165449 0.06417906 -0.67799997 26 53 22
-0.25070673 0.25518927 -0.67650002 40 75 17
-0.29526287 0.13789044 -0.68900001 27 52 22
-0.21125975 0.24255632 -0.66600001 86 129 76
0.35294637 -0.02792743 -0.64399999 70 110 60
0.01962680 -0.00565140 -0.68849999 89 128 83
0.12766646 0.12710531 -0.61900002 78 117 73
0.29657578 -0.19404784 -0.71200001 130 170 82
-0.05650470 -0.06522219 -0.72799999 103 140 99
0.32967454 0.03301368 -0.62300003 73 113 61
-0.09825252 -0.08916651 -0.75000000 180 211 141
-0.11432593 -0.02303107 -0.69900000 58 97 42
-0.07598050 0.04041575 -0.64399999 85 122 91
0.27378905 0.01154704 -0.67199999 47 65 41
0.34577507 0.13360366 -0.63849998 63 101 52
0.00441658 0.16683432 -0.62900001 66 99 52
-0.14973457 0.10227995 -0.67600000 48 82 47
0.15055980 -0.15237662 -0.73000002 138 178 79
-0.04836500 0.02128827 -0.66200000 58 97 53
0.16134819 -0.01820385 -0.67199999 173 212 129
0.05779694 -0.07607145 -0.72299999 52 89 45
0.11387697 -0.05167119 -0.68650001 121 159 100
0.19586708 -0.00151376 -0.64450002 114 157 75
0.19252454 -0.10975754 -0.70950001 178 217 128
-0.01822201 0.14806168 -0.61900002 45 80 26
0.29764012 -0.03667962 -0.65050000 48 85 33
0.20799659 -0.03501366 -0.65899998 64 100 62
0.34283602 0.19035137 -0.65350002 46 79 26
-0.30481043 0.20237590 -0.72899997 44 71 38
0.27017272 0.05944609 -0.62800002 55 86 80
-0.22114617 0.06919565 -0.67100000 38 70 23
0.08933754 0.66906410 -1.49500000 41 49 52
-0.02977172 0.31215990 -0.78549999 45 75 5
-0.16542605 0.04277918 -0.65450001 75 114 69
0.33304754 0.01884750 -0.62400001 77 114 63
-0.10231534 0.05785309 -0.65149999 71 107 61
0.30347094 0.10414682 -0.64399999 51 90 37
0.10285699 -0.00627113 -0.76400000 81 85 68
-0.04945661 -0.10590975 -0.75800002 72 106 55
0.33117080 0.13680722 -0.63599998 59 97 48
0.01246256 0.04303252 -0.66500002 5 37 0
-0.02354217 -0.01044388 -0.67949998 112 145 102
0.19055368 -0.16376963 -0.71950001 100 137 57
0.08774750 -0.02896045 -0.67799997 85 119 69
0.18484287 0.00651393 -0.64999998 38 72 35
-0.05956268 0.18391646 -0.63000000 62 96 59
-0.17522758 0.23427474 -0.68099999 87 120 77
-0.01386490 0.30332586 -0.78250003 54 84 20
0.30282453 -0.08800894 -0.64800000 157 190 119
0.15559843 -0.14093289 -0.72250003 156 196 100
0.16529591 0.20365907 -0.66500002 71 105 70
0.34593561 -0.06114562 -0.64499998 67 108 66
0.25080231 0.32404432 -0.82349998 80 116 68
0.28637090 0.12968507 -0.64800000 201 233 232
0.29929689 -0.10385863 -0.64950001 187 230 223
-0.15014459 0.27929279 -0.70050001 121 157 85
0.02527827 0.01105316 -0.69599998 81 113 76
-0.16607152 0.30296829 -0.68900001 171 206 142
0.27880281 -0.14508447 -0.68650001 107 143 69
-0.00827188 0.10900564 -0.62849998 35 72 18
-0.25521448 0.20771529 -0.69599998 67 96 48
0.33492115 0.19190630 -0.65300000 79 114 48
-0.25637046 0.26262400 -0.67750001 33 71 14
-0.11337408 0.24947609 -0.68500000 78 114 66
-0.20689218 -0.07821615 -0.69199997 167 202 110
0.32645836 -0.02055739 -0.63650000 65 107 59
0.07825498 0.17780255 -0.64349997 45 78 35
-0.02704440 0.11563402 -0.61799997 28 65 13
0.16041330 -0.12220173 -0.72299999 143 183 86
0.32344228 0.18850516 -0.65300000 48 80 31
0.02418635 -0.14459346 -0.73150003 153 188 106
0.21709396 0.02805338 -0.64899999 63 101 62
-0.01513122 0.14083891 -0.62449998 20 58 1
0.26531002 0.06558532 -0.63200003 25 42 32
0.13188158 0.00938149 -0.64349997 166 210 123
0.32131657 0.19445716 -0.65300000 59 93 42
-0.01348342 -0.09060944 -0.73400003 148 185 108
